ply
format ascii 1.0
element vertex 1256
property float x
property float y
property float z
property uchar red
property uchar green
property uchar blue
end_header
9.93607 57.3339 -90.473  255 255 255
-64.3836 48.2936 -52.3356  255 255 255
-54.568 44.5378 -60.3303  255 255 255
-72.8508 40.982 -53.7187  255 255 255
-8.8846 44.1866 -90.7421  255 255 255
-87.5142 24.4998 -52.7792  255 255 255
-92.2492 22.8836 -50.7384  255 255 255
11.8952 21.811 -65.6775  255 255 255
-87.3322 20.2631 -57.8141  255 255 255
-15.15 10.5736 -51.8825  255 255 255
-102.661 8.763 -50.6372  255 255 255
-18.5845 2.23753 21.9791  255 255 255
-10.5573 1.40185 30.9799  255 255 255
-34.4109 5.95626 -44.1828  255 255 255
-26.7808 4.08875 -43.1339  255 255 255
-18.7523 0.205722 25.0093  255 255 255
-53.7632 0.975518 -40.9878  255 255 255
-26.4648 -1.25767 7.70565  255 255 255
-27.3101 -0.107414 -37.6343  255 255 255
-29.7271 -1.52987 7.60427  255 255 255
-42.9697 -1.2672 -35.8994  255 255 255
-21.7864 -3.28918 23.5397  255 255 255
27.984 236.672 -168.786  255 255 255
-77.5507 211.248 -139.75  255 255 255
-43.9366 84.9433 -38.7726  255 255 255
-57.2242 80.2235 -32.9996  255 255 255
-90.0477 71.9179 -17.5475  255 255 255
-7.52376 84.0861 -59.5351  255 255 255
5.01237 81.8282 -72.321  255 255 255
-69.6341 54.0497 -45.9922  255 255 255
32.3138 66.5747 -100.68  255 255 255
-2.79667 59.236 -83.5096  255 255 255
-2.51073 47.4706 -92.2609  255 255 255
-87.6484 27.5873 -53.3714  255 255 255
-87.5226 27.4784 -52.5867  255 255 255
15.3331 24.3494 -66.7011  255 255 255
-20.3424 1.73735 9.38901  255 255 255
-40.2446 -0.475834 -38.013  255 255 255
-38.0917 174.269 -101.202  255 255 255
-38.11 174.39 -101.364  255 255 255
-80.7244 163.666 -85.9654  255 255 255
-54.6302 167.927 -94.1736  255 255 255
-73.4316 164.293 -88.2128  255 255 255
-73.4316 164.293 -88.2128  255 255 255
-41.5072 167.184 -97.0174  255 255 255
24.2525 98.9842 -70.7331  255 255 255
-172.044 106.383 -147.024  255 255 255
49.4714 65.8493 -112.685  255 255 255
44.1833 64.651 -109.564  255 255 255
-7.15987 49.8428 -86.4018  255 255 255
-81.1416 39.2879 -47.3316  255 255 255
0.236246 47.1407 -92.6475  255 255 255
-16.4289 31.9304 -80.2765  255 255 255
-84.6172 26.5081 -56.6749  255 255 255
-21.1148 2.12298 8.43059  255 255 255
-21.8164 -0.730466 12.9334  255 255 255
-67.3765 162.872 -89.4108  255 255 255
-10.0156 126.307 -54.0636  255 255 255
26.5248 129.229 -66.0749  255 255 255
-8.27627 57.6898 -80.3484  255 255 255
-23.0085 52.0221 -73.6341  255 255 255
-83.6856 34.248 -50.2463  255 255 255
30.9189 25.442 -68.8829  255 255 255
-123.351 208.968 -133.699  255 255 255
-62.5191 166.743 -91.6424  255 255 255
57.4727 76.1945 -107.031  255 255 255
43.1986 72.7277 -97.2157  255 255 255
4.81704 58.3138 -85.8721  255 255 255
-28.3139 51.7981 -72.3964  255 255 255
-10.6979 46.6995 -84.0444  255 255 255
-91.4653 75.7544 -16.0742  255 255 255
-19.085 50.4108 -78.7955  255 255 255
13.1442 72.8393 -83.1562  255 255 255
-40.3582 39.1512 -76.8544  255 255 255
61.2635 59.616 -13.9719  255 255 255
61.2446 59.305 -14.8389  255 255 255
61.1635 59.2694 -14.7223  255 255 255
59.1361 58.2424 -19.9861  255 255 255
56.165 43.5904 15.6046  255 255 255
59.4792 57.0328 -20.4163  255 255 255
29.1963 84.2078 -86.3935  255 255 255
63.6198 83.1759 -105.824  255 255 255
68.5836 83.1084 -107.887  255 255 255
57.9901 82.0665 -103.689  255 255 255
30.8703 80.9178 -90.9112  255 255 255
23.5662 78.5552 -84.3296  255 255 255
1.41199 77.1798 -71.7456  255 255 255
-7.52078 76.8045 -67.2337  255 255 255
2.70142 77.2232 -72.597  255 255 255
58.654 50.3484 -26.173  255 255 255
58.654 50.3484 -26.1731  255 255 255
59.4224 50.1219 -25.9614  255 255 255
14.909 77.5279 -81.3212  255 255 255
68.8232 79.4753 -111.586  255 255 255
56.2915 77.0291 -104.472  255 255 255
71.5144 78.2373 -115.383  255 255 255
71.5143 78.2372 -115.383  255 255 255
60.7295 31.8185 16.1947  255 255 255
24.6321 74.3117 -88.6142  255 255 255
57.1875 33.3795 10.0272  255 255 255
57.951 32.9554 11.0118  255 255 255
60.7437 30.314 16.3491  255 255 255
61.1882 29.3177 18.331  255 255 255
17.6959 72.4377 -85.1212  255 255 255
58.7272 31.5695 12.0579  255 255 255
21.0498 72.2441 -87.9439  255 255 255
22.7854 72.2265 -88.827  255 255 255
62.1657 27.6705 19.6  255 255 255
61.0773 72.9852 -112.629  255 255 255
59.9008 28.9976 14.8946  255 255 255
62.671 26.8652 18.2324  255 255 255
57.6007 44.1511 -32.4267  255 255 255
37.3769 70.0473 -99.2648  255 255 255
36.2623 70.3801 -100.206  255 255 255
62.3092 25.5272 17.7428  255 255 255
60.0732 41.6515 -29.7597  255 255 255
57.4304 43.608 -34.8769  255 255 255
12.0252 67.5827 -84.9335  255 255 255
58.2079 43.046 -34.8478  255 255 255
-2.00289 67.2024 -77.2943  255 255 255
60.7061 26.4129 13.0126  255 255 255
-1.14365 67.1841 -78.5797  255 255 255
57.6555 41.934 -34.9296  255 255 255
58.2869 27.2857 8.43158  255 255 255
60.9936 24.8643 13.9152  255 255 255
41.6553 67.3257 -107.597  255 255 255
56.6052 28.1366 5.03359  255 255 255
-2.90791 65.2849 -77.7644  255 255 255
61.3802 37.8046 -27.8107  255 255 255
60.0951 24.8654 11.7691  255 255 255
63.0723 22.1021 17.6523  255 255 255
57.3116 26.771 5.471  255 255 255
60.3531 24.1259 11.8975  255 255 255
58.8386 25.0532 9.1473  255 255 255
56.7924 26.888 4.08373  255 255 255
-8.04358 63.5137 -75.7892  255 255 255
18.126 63.8389 -91.696  255 255 255
56.9484 26.2722 5.09626  255 255 255
65.983 18.7363 23.3658  255 255 255
65.2935 32.2865 -21.2067  255 255 255
60.8925 22.6216 11.4596  255 255 255
16.7646 62.4753 -92.1687  255 255 255
-9.7759 62.0576 -75.7337  255 255 255
-4.89645 61.7988 -78.5066  255 255 255
36.7344 61.7209 -104.866  255 255 255
58.1039 23.6165 3.68662  255 255 255
57.5124 23.4216 3.97779  255 255 255
62.2934 19.6052 13.946  255 255 255
57.1228 23.3495 3.41722  255 255 255
60.6613 20.6793 9.44391  255 255 255
58.6404 22.3575 3.97405  255 255 255
66.5374 15.6995 21.8396  255 255 255
56.453 23.3311 1.42008  255 255 255
57.8688 22.089 4.38711  255 255 255
9.96539 59.2183 -90.503  255 255 255
9.96495 59.2177 -90.5012  255 255 255
57.6843 21.9759 3.39712  255 255 255
58.7856 21.0232 5.42251  255 255 255
58.2095 21.4302 3.55251  255 255 255
60.2657 31.3658 -34.0769  255 255 255
66.2993 26.0352 -22.0506  255 255 255
63.6625 16.4001 12.6423  255 255 255
64.3187 27.3057 -27.2835  255 255 255
60.6497 17.7746 8.50981  255 255 255
60.9184 17.5056 8.68232  255 255 255
62.2624 16.1843 10.324  255 255 255
62.1305 15.8712 10.8221  255 255 255
56.1502 20.4182 -1.8875  255 255 255
61.4868 16.4677 8.27673  255 255 255
63.5622 14.1866 13.6404  255 255 255
56.9998 19.1802 -0.644805  255 255 255
9.31063 54.0541 -95.7012  255 255 255
57.2417 30.5058 -44.4272  255 255 255
57.1654 17.8819 -1.34198  255 255 255
60.1998 27.4602 -38.8965  255 255 255
55.297 19.1995 -5.23522  255 255 255
55.297 19.1995 -5.23509  255 255 255
61.5157 14.0884 8.27319  255 255 255
57.4498 17.4225 -1.45185  255 255 255
65.0081 23.0753 -28.9785  255 255 255
56.9936 17.19 -2.67631  255 255 255
60.7155 14.4664 4.93123  255 255 255
60.7242 14.4736 4.89798  255 255 255
61.7493 13.2697 7.01817  255 255 255
61.615 13.2426 7.16364  255 255 255
59.3889 14.9772 1.83875  255 255 255
61.5738 12.8951 7.68157  255 255 255
58.4077 14.6622 2.31263  255 255 255
60.1678 13.9293 2.95943  255 255 255
56.2764 16.7428 -5.41986  255 255 255
57.5913 27.2608 -47.0174  255 255 255
57.5076 26.5956 -46.7098  255 255 255
57.7287 26.2173 -45.6517  255 255 255
32.2917 43.0048 -93.0612  255 255 255
57.9433 25.1942 -47.1832  255 255 255
31.8706 41.642 -90.9815  255 255 255
58.3265 24.5892 -46.3997  255 255 255
57.3786 13.7994 -2.99014  255 255 255
59.8654 11.8494 1.51482  255 255 255
59.149 12.1443 -0.957278  255 255 255
64.3593 8.30296 10.2327  255 255 255
64.3592 8.30294 10.233  255 255 255
57.4178 13.387 -4.99178  255 255 255
-15.6245 47.3205 -81.5495  255 255 255
60.2014 10.5952 0.67034  255 255 255
60.6983 9.66158 1.19792  255 255 255
23.7446 38.2329 -86.5361  255 255 255
67.2489 4.73991 14.6745  255 255 255
60.8536 8.81736 2.74041  255 255 255
59.5532 9.50359 -0.772694  255 255 255
67.5588 3.89572 15.981  255 255 255
59.3552 9.32839 -1.12279  255 255 255
59.8193 9.00691 -0.198363  255 255 255
66.4446 4.45296 13.2205  255 255 255
63.6846 16.813 -37.7731  255 255 255
60.8784 8.15032 1.02886  255 255 255
61.6068 7.37692 2.42412  255 255 255
61.7643 6.77036 2.80702  255 255 255
61.8427 6.80584 2.71067  255 255 255
-23.6261 44.3858 -81.0789  255 255 255
62.551 5.84627 3.93341  255 255 255
62.551 5.84626 3.93358  255 255 255
62.9747 5.6464 4.50926  255 255 255
64.8226 4.02662 9.94907  255 255 255
65.7549 3.55706 10.9409  255 255 255
65.7547 3.55705 10.9411  255 255 255
61.092 6.73986 0.569805  255 255 255
65.5394 2.92644 11.4369  255 255 255
65.5079 3.2104 9.88503  255 255 255
57.768 8.55702 -6.90078  255 255 255
60.1947 6.82261 -1.70623  255 255 255
63.2949 4.44333 6.04105  255 255 255
11.7038 35.5323 -82.7525  255 255 255
65.5811 2.87368 9.66332  255 255 255
57.1812 8.34021 -9.22922  255 255 255
59.4009 16.6035 -49.8612  255 255 255
62.6696 4.10741 3.00511  255 255 255
60.3054 5.6 -2.27745  255 255 255
65.896 1.65963 9.63204  255 255 255
60.0817 14.8721 -48.2606  255 255 255
21.5358 28.9281 -74.6885  255 255 255
67.1635 0.082716 11.4081  255 255 255
3.10487 33.9743 -80.7756  255 255 255
59.944 4.79573 -3.88583  255 255 255
59.9344 4.79546 -3.86709  255 255 255
60.5817 4.01833 -3.8361  255 255 255
67.7215 -1.19137 12.8922  255 255 255
17.9145 27.5996 -73.3504  255 255 255
13.9494 27.4872 -71.8599  255 255 255
60.2407 3.02739 -4.42804  255 255 255
64.039 -0.809249 3.16689  255 255 255
5.36376 27.204 -71.0549  255 255 255
27.8984 20.0708 -63.6505  255 255 255
57.912 2.60759 -11.4148  255 255 255
57.6399 2.42767 -11.7619  255 255 255
57.6398 2.42766 -11.7617  255 255 255
3.57935 6.98475 24.1123  255 255 255
2.36065 26.1043 -70.9938  255 255 255
56.858 2.53783 -14.9343  255 255 255
65.5119 -3.77808 5.11733  255 255 255
67.1679 -4.63675 7.01618  255 255 255
67.671 -5.42672 9.00621  255 255 255
68.541 -6.23811 10.2846  255 255 255
66.714 -5.28909 6.91454  255 255 255
66.9135 -5.27712 6.65296  255 255 255
63.0663 -2.97825 -1.93762  255 255 255
-5.45588 7.63977 23.3172  255 255 255
55.6522 1.26731 -18.7583  255 255 255
55.5553 1.26741 -18.6271  255 255 255
55.2336 1.25021 -18.1224  255 255 255
54.9921 1.24491 -18.3657  255 255 255
56.2157 0.652409 -16.593  255 255 255
55.7476 0.470102 -17.0064  255 255 255
60.0562 -1.9931 -9.67019  255 255 255
66.433 -6.51535 5.72724  255 255 255
-8.13455 6.77685 25.2836  255 255 255
60.3356 -2.81985 -8.72266  255 255 255
60.6717 -3.43763 -8.14225  255 255 255
61.6529 -4.37625 -4.48378  255 255 255
61.653 -4.37625 -4.48388  255 255 255
-1.80624 21.5997 -66.3655  255 255 255
66.1543 -7.01379 3.47659  255 255 255
66.1546 -7.01378 3.47645  255 255 255
-10.395 6.9775 22.8613  255 255 255
-10.395 6.97751 22.8613  255 255 255
-9.92615 6.75255 23.4786  255 255 255
68.68 -8.69012 7.77874  255 255 255
6.1664 17.4335 -59.4696  255 255 255
58.3047 -2.95503 -14.2196  255 255 255
58.591 -3.00031 -13.9472  255 255 255
-0.755125 2.88471 29.0544  255 255 255
8.14708 -0.142627 32.5327  255 255 255
66.0343 -8.56184 1.99987  255 255 255
-1.29974 2.32953 29.6658  255 255 255
58.5719 -3.99877 -14.46  255 255 255
68.8495 -10.3289 8.30334  255 255 255
58.6201 -4.31022 -14.3041  255 255 255
59.0953 -4.72289 -13.5468  255 255 255
68.9696 -11.2799 6.66859  255 255 255
59.6785 -5.99186 -12.1939  255 255 255
59.6785 -5.99185 -12.1938  255 255 255
68.6148 -11.3657 6.14662  255 255 255
65.5164 -9.79772 -0.00304049  255 255 255
67.4097 -11.0607 4.59758  255 255 255
-14.609 4.82622 24.3491  255 255 255
68.0966 -11.7352 4.69256  255 255 255
-5.65336 15.3172 -57.3913  255 255 255
5.75715 -2.61732 35.3224  255 255 255
64.7026 -10.8095 -4.42104  255 255 255
62.8056 -9.89801 -8.09719  255 255 255
68.531 -13.3945 5.13186  255 255 255
68.4812 -13.3782 4.64567  255 255 255
63.0543 -9.9892 -9.99046  255 255 255
59.242 -8.27266 -15.2939  255 255 255
65.9842 -12.4668 -0.437201  255 255 255
58.7796 -8.56965 -17.1628  255 255 255
66.5876 -12.8724 -1.33494  255 255 255
58.6107 -8.62022 -17.5641  255 255 255
2.74643 -3.54266 36.753  255 255 255
57.9288 -8.45736 -20.1371  255 255 255
68.0746 -14.4326 2.70549  255 255 255
69.1432 -15.2007 4.00302  255 255 255
69.1441 -15.2007 4.00179  255 255 255
-12.2204 13.4611 -54.6635  255 255 255
66.8923 -13.825 -2.48723  255 255 255
-13.6769 0.882244 29.449  255 255 255
-8.75319 -1.14872 34.1666  255 255 255
-8.53965 -1.23012 34.2924  255 255 255
59.195 -10.5259 -17.002  255 255 255
-8.26653 -1.69458 34.896  255 255 255
-8.21512 -1.67915 34.7643  255 255 255
65.747 -14.5154 -3.83107  255 255 255
65.4097 -14.5082 -3.35616  255 255 255
-12.5655 -0.307839 31.4463  255 255 255
-16.593 1.35994 26.5228  255 255 255
10.8637 -6.86886 35.3252  255 255 255
-5.95571 -2.88669 36.3662  255 255 255
59.8156 -11.472 -16.9633  255 255 255
59.8157 -11.472 -16.9634  255 255 255
69.0793 -16.9042 4.61397  255 255 255
-10.22 -1.54296 34.0016  255 255 255
-6.90007 -2.74073 36.0971  255 255 255
-6.90004 -2.74072 36.097  255 255 255
57.7456 -10.5218 -22.1502  255 255 255
-8.06851 -2.57084 35.5548  255 255 255
-2.88807 -4.26994 37.7039  255 255 255
-14.8378 -0.260786 29.8057  255 255 255
65.007 -15.2592 -4.90358  255 255 255
65.5422 -15.4082 -4.42008  255 255 255
-13.1999 -0.948576 31.6383  255 255 255
-0.401007 -5.81331 38.6213  255 255 255
67.2401 -17.5591 0.553902  255 255 255
69.8049 -18.8421 4.15833  255 255 255
69.8034 -18.842 4.16047  255 255 255
67.6516 -17.9141 0.638166  255 255 255
-11.3916 -2.86425 34.449  255 255 255
60.1548 -13.7749 -18.6726  255 255 255
63.9468 -16.0462 -8.66797  255 255 255
68.5343 -18.3262 -0.249109  255 255 255
-12.4103 -2.70033 33.7013  255 255 255
63.4254 -15.9982 -9.45272  255 255 255
67.7652 -18.3935 0.1617  255 255 255
-17.4014 -0.691999 27.9995  255 255 255
-17.4132 -0.694194 28.0358  255 255 255
6.54687 -8.17597 38.0757  255 255 255
-13.3596 -2.54715 32.8068  255 255 255
-13.383 -2.54149 32.8652  255 255 255
63.5361 -16.8069 -10.6559  255 255 255
67.7015 -19.3372 -1.83573  255 255 255
61.1901 -16.003 -15.7359  255 255 255
-12.5288 -3.65335 34.0997  255 255 255
-5.03976 -6.34 38.4116  255 255 255
62.3913 -16.924 -14.3462  255 255 255
62.5741 -16.9212 -14.6197  255 255 255
21.5716 -11.8818 26.8416  255 255 255
-12.6462 -4.19466 34.4427  255 255 255
68.2403 -20.584 -0.214176  255 255 255
29.9637 -13.6702 22.7432  255 255 255
28.7985 -13.6648 23.013  255 255 255
62.5849 -17.7926 -14.2349  255 255 255
63.5204 -18.3426 -11.6736  255 255 255
11.9309 -11.1024 35.9366  255 255 255
21.6897 -12.6252 27.305  255 255 255
-7.77711 -6.44829 37.72  255 255 255
-21.3517 0.190614 11.4969  255 255 255
63.7373 -19.0407 -11.3751  255 255 255
-6.09286 -7.21011 38.5211  255 255 255
-3.52335 -7.97105 39.075  255 255 255
63.8516 -19.3594 -11.552  255 255 255
-24.8408 1.48055 3.69821  255 255 255
69.6296 -22.7613 -1.05024  255 255 255
-21.7589 -0.688883 12.814  255 255 255
-11.234 -6.49376 36.5136  255 255 255
-27.1201 6.3788 -46.2415  255 255 255
-27.1201 6.37872 -46.2409  255 255 255
10.5266 -12.8588 35.9992  255 255 255
-22.9524 -1.77886 14.0103  255 255 255
-13.2355 -6.90179 35.368  255 255 255
-9.16385 -8.27603 37.8492  255 255 255
-13.407 -6.99729 35.3213  255 255 255
-23.4819 -2.1678 14.4978  255 255 255
-26.2093 -0.680786 6.63465  255 255 255
-23.3928 -2.39452 14.8269  255 255 255
-24.4204 -2.28301 14.4985  255 255 255
-21.8632 -4.29882 24.4927  255 255 255
-7.497 -9.58981 38.9042  255 255 255
-13.8663 -7.57718 35.408  255 255 255
-10.6586 -8.93463 37.5573  255 255 255
69.7269 -26.3199 -2.88775  255 255 255
70.0591 -26.8431 -2.41764  255 255 255
70.0591 -26.8431 -2.41772  255 255 255
-29.8376 -1.15274 7.3843  255 255 255
-29.8292 -1.15742 7.35631  255 255 255
-6.26809 -10.797 39.5513  255 255 255
-5.88843 -11.0695 39.8609  255 255 255
-25.0778 -3.56258 16.1267  255 255 255
25.8726 -18.5975 29.7683  255 255 255
-19.5334 -6.44459 29.4387  255 255 255
-5.32699 -11.3281 39.873  255 255 255
-26.4164 -2.73878 9.4844  255 255 255
-16.4814 -7.78476 33.4576  255 255 255
-9.69628 -10.1541 38.2206  255 255 255
-14.4675 -8.67648 35.2727  255 255 255
-29.6776 -2.07132 8.40986  255 255 255
-7.25308 -11.1543 39.4299  255 255 255
-7.25311 -11.1543 39.43  255 255 255
-14.8897 -8.90629 35.0586  255 255 255
11.5988 -16.3058 35.7381  255 255 255
-0.410509 -13.7715 40.2349  255 255 255
-9.22335 -11.5616 38.7392  255 255 255
7.68085 -16.14 38.3248  255 255 255
-8.53995 -11.981 39.1264  255 255 255
-8.53994 -11.981 39.1264  255 255 255
-2.85815 -13.6258 40.2553  255 255 255
-11.1559 -11.3939 38.6017  255 255 255
0.172418 -14.6826 40.0631  255 255 255
-12.208 -11.1774 37.1542  255 255 255
-22.0653 -7.87631 26.6  255 255 255
-22.0653 -7.87631 26.6  255 255 255
2.09222 -15.7071 39.8812  255 255 255
2.09223 -15.7071 39.8811  255 255 255
-5.85869 -13.5605 39.8639  255 255 255
-22.9006 -7.64863 24.74  255 255 255
15.7847 -19.2022 35.7533  255 255 255
-7.23155 -13.2995 39.7429  255 255 255
25.5205 -21.8075 33.4856  255 255 255
-11.2471 -12.2048 38.5013  255 255 255
-20.8322 -9.22435 29.1109  255 255 255
-5.47175 -14.3529 39.6675  255 255 255
-4.21689 -14.7266 39.9805  255 255 255
-25.6993 -7.29393 21.1202  255 255 255
-17.1947 -10.7703 34.0559  255 255 255
14.3892 -20.2122 37.2318  255 255 255
-12.8019 -12.6543 36.9191  255 255 255
-12.7094 -12.8334 37.6128  255 255 255
-10.6104 -13.6831 38.3145  255 255 255
-20.0345 -10.6913 30.8181  255 255 255
3.29123 -17.875 39.3468  255 255 255
-11.2331 -13.8302 38.2175  255 255 255
-24.1237 -9.2884 23.9888  255 255 255
-31.3069 -6.67146 14.411  255 255 255
13.3331 -20.9304 38.1722  255 255 255
-3.72814 -16.4241 39.9852  255 255 255
-1.61672 -17.0031 39.9653  255 255 255
-1.57734 -17.0235 39.8969  255 255 255
15.4532 -21.5625 36.3551  255 255 255
12.7521 -21.0931 38.3782  255 255 255
21.729 -23.5351 36.1445  255 255 255
-20.678 -11.3844 29.8612  255 255 255
6.30742 -19.5759 38.0726  255 255 255
-17.703 -12.6546 33.6098  255 255 255
18.8011 -23.0759 35.4536  255 255 255
-21.8862 -11.4462 28.098  255 255 255
18.5788 -23.4046 35.9005  255 255 255
-33.3 -7.40141 15.1783  255 255 255
-16.2506 -13.583 34.9804  255 255 255
-32.3604 -8.22099 16.6295  255 255 255
-32.3076 -8.21296 16.412  255 255 255
-6.38735 -17.0827 39.4339  255 255 255
3.35307 -19.8633 38.9271  255 255 255
4.56673 -20.1445 38.4911  255 255 255
1.37133 -20.0898 39.0736  255 255 255
-24.5313 -12.0344 27.602  255 255 255
-14.6143 -15.3894 36.727  255 255 255
-0.196482 -19.6655 39.2588  255 255 255
-29.5763 -10.2434 19.2429  255 255 255
-18.8146 -14.8462 33.0371  255 255 255
-18.8146 -14.8462 33.0372  255 255 255
-18.2432 -15.8507 33.5319  255 255 255
17.8796 -26.7708 40.2667  255 255 255
-12.9259 -17.9533 36.7982  255 255 255
-14.984 -17.7294 35.2819  255 255 255
-17.9029 -16.9253 33.6365  255 255 255
-25.9175 -14.3628 27.6408  255 255 255
-17.7259 -17.6225 34.744  255 255 255
1.16938 -23.4626 41.4665  255 255 255
0.826316 -23.5038 41.4624  255 255 255
-21.5946 -16.6553 33.3082  255 255 255
0.273327 -23.4895 41.6206  255 255 255
-1.24522 -23.1166 41.3205  255 255 255
-16.4426 -18.496 35.7272  255 255 255
-16.4426 -18.496 35.7273  255 255 255
-32.1356 -13.6419 23.2542  255 255 255
-16.8092 -18.9702 36.274  255 255 255
11.5654 -27.6537 41.169  255 255 255
14.8073 -28.6577 39.8263  255 255 255
3.22602 -25.6528 40.6812  255 255 255
3.22602 -25.6528 40.6812  255 255 255
9.00452 -27.3805 40.8672  255 255 255
-32.2408 -14.716 25.1534  255 255 255
-30.7209 -15.2755 25.797  255 255 255
17.3586 -30.0524 39.2384  255 255 255
17.3588 -30.0525 39.238  255 255 255
-33.0043 -14.9506 25.2454  255 255 255
-17.4562 -20.0349 37.3831  255 255 255
-30.9365 -15.7425 26.6067  255 255 255
-31.5817 -15.7442 26.3013  255 255 255
-19.6073 -19.6832 35.6143  255 255 255
-11.9183 -22.1496 39.8239  255 255 255
-12.9111 -21.8685 39.7129  255 255 255
6.67608 -28.0427 41.6194  255 255 255
-7.34385 -23.9276 41.121  255 255 255
-7.34386 -23.9276 41.121  255 255 255
-28.8331 -17.2134 28.302  255 255 255
-30.7386 -16.7006 27.869  255 255 255
-28.8491 -17.4069 28.6555  255 255 255
-31.3535 -16.6504 27.6594  255 255 255
8.25591 -29.025 43.0239  255 255 255
-5.86222 -24.7551 41.4487  255 255 255
-30.0478 -17.8963 29.282  255 255 255
-10.6718 -23.9773 39.7589  255 255 255
-9.40972 -24.452 40.1304  255 255 255
-9.40972 -24.452 40.1304  255 255 255
3.84248 -28.509 42.3709  255 255 255
-11.1167 -24.0857 39.5698  255 255 255
3.53256 -29.4575 43.5994  255 255 255
6.33045 -30.5693 45.0561  255 255 255
6.33029 -30.5692 45.0565  255 255 255
-28.1621 -20.0643 31.8164  255 255 255
-22.2909 -22.1678 34.6596  255 255 255
0.62772 -29.4938 43.5472  255 255 255
17.5429 -34.9674 35.053  255 255 255
16.4278 -34.6426 34.3862  255 255 255
-29.4778 -20.5707 29.4606  255 255 255
-22.708 -22.9002 35.5508  255 255 255
-1.85072 -29.5542 43.8692  255 255 255
-6.90042 -28.0187 41.9054  255 255 255
-28.2724 -21.3921 33.7771  255 255 255
-25.1639 -22.372 34.8656  255 255 255
-3.83401 -29.041 43.1688  255 255 255
-0.244366 -30.343 44.1616  255 255 255
-19.2545 -24.4864 37.6591  255 255 255
-3.2867 -29.5914 43.8218  255 255 255
-21.7285 -23.8701 36.8535  255 255 255
-17.2851 -25.2673 38.6203  255 255 255
-4.75256 -29.2063 43.2779  255 255 255
-28.0057 -22.0533 34.3421  255 255 255
-10.0929 -27.6275 41.4999  255 255 255
-29.0155 -21.8429 34.3464  255 255 255
-2.0822 -30.4478 43.9664  255 255 255
0.0832575 -31.4216 43.0332  255 255 255
-8.85062 -28.7792 43.0036  255 255 255
-7.89136 -29.2548 43.6894  255 255 255
-16.8289 -26.505 40.055  255 255 255
-11.6388 -28.1215 42.0737  255 255 255
-2.97892 -31.0931 43.3904  255 255 255
-15.906 -27.1568 40.9581  255 255 255
-16.8777 -26.86 40.6599  255 255 255
-11.536 -28.7239 42.9029  255 255 255
-12.7491 -28.3775 42.4607  255 255 255
1.40787 -32.9711 41.7188  255 255 255
10.0271 -36.4007 36.3992  255 255 255
10.0268 -36.4006 36.3997  255 255 255
-18.8875 -27.1286 40.6643  255 255 255
-1.48165 -33.0454 41.7929  255 255 255
-1.49939 -33.0171 41.8511  255 255 255
18.7183 -40.416 30.3301  255 255 255
-14.4245 -29.4829 41.1646  255 255 255
18.0561 -40.273 30.9071  255 255 255
-13.4866 -29.8535 41.2368  255 255 255
-4.61906 -32.9641 41.9913  255 255 255
-4.61906 -32.9641 41.9913  255 255 255
-2.87909 -33.6222 41.5193  255 255 255
-12.3819 -30.6366 41.1443  255 255 255
-2.91853 -34.0867 41.007  255 255 255
14.9065 -40.4178 31.0967  255 255 255
-12.2063 -31.5818 40.4536  255 255 255
-11.7478 -31.9543 40.4081  255 255 255
-3.85756 -34.4702 40.8206  255 255 255
-24.3553 -28.2613 32.5616  255 255 255
-7.48997 -34.4006 41.0291  255 255 255
-14.0202 -32.3928 38.6729  255 255 255
-11.9169 -33.4 38.88  255 255 255
0.303199 -37.8709 37.9774  255 255 255
0.538649 -38.489 37.7403  255 255 255
-8.31215 -35.5407 39.2889  255 255 255
-8.10767 -35.7758 39.1201  255 255 255
0.516907 -39.0956 37.3072  255 255 255
-11.7466 -35.0393 37.4493  255 255 255
-0.784044 -39.6067 37.4162  255 255 255
-0.783898 -39.6068 37.4159  255 255 255
-2.60104 -39.2183 37.2179  255 255 255
-14.7088 -35.8164 35.7783  255 255 255
-15.3821 -35.8203 35.3687  255 255 255
-24.084 -33.9244 29.6885  255 255 255
-23.7789 -34.3785 30.1935  255 255 255
-13.0328 -37.7029 35.5807  255 255 255
4.69695 -43.9874 33.8516  255 255 255
3.04507 -43.3617 34.353  255 255 255
-13.3624 -37.9539 35.5821  255 255 255
1.42581 -43.288 34.4374  255 255 255
-13.4418 -38.2442 35.6337  255 255 255
-24.9904 -35.0319 27.5511  255 255 255
-20.1091 -37.9547 30.4202  255 255 255
-26.4704 -36.332 25.0371  255 255 255
-20.5599 -38.3128 29.2834  255 255 255
-15.439 -40.3487 31.9982  255 255 255
-29.5385 -37.6529 21.1925  255 255 255
4.24659 -50.9009 34.213  255 255 255
-31.6443 -42.0225 22.9604  255 255 255
-58.694 -35.0934 6.23397  255 255 255
-58.0227 -35.4857 6.9115  255 255 255
-8.84878 -49.8948 35.7557  255 255 255
-6.7327 -51.0122 34.8468  255 255 255
-10.0424 -50.1408 34.4678  255 255 255
-9.33518 -50.5391 34.4927  255 255 255
-10.0193 -50.8341 34.262  255 255 255
-10.4613 -50.6989 34.5183  255 255 255
-12.9404 -50.5198 33.0573  255 255 255
-9.86429 -51.6437 34.295  255 255 255
-9.86425 -51.6437 34.2949  255 255 255
-19.8891 -48.8964 30.791  255 255 255
-49.2123 -40.9763 14.0344  255 255 255
-49.493 -40.9602 13.7625  255 255 255
14.754 -61.6631 40.722  255 255 255
-44.884 -44.8252 19.2043  255 255 255
-36.4491 -47.2857 24.4898  255 255 255
-35.7884 -47.8731 25.0235  255 255 255
-35.1543 -48.0197 25.4671  255 255 255
-31.3768 -50.2586 28.4772  255 255 255
-41.5719 -48.3137 23.7001  255 255 255
7.07462 -63.7665 43.3541  255 255 255
7.2004 -63.8677 43.1214  255 255 255
-1.18542 -61.3161 39.9119  255 255 255
-1.76337 -61.4626 40.54  255 255 255
-4.11903 -60.9739 39.8314  255 255 255
10.4815 -66.6506 47.1984  255 255 255
14.6579 -68.5447 49.6623  255 255 255
-41.0009 -51.0784 26.9648  255 255 255
-4.36955 -62.7652 41.8004  255 255 255
-43.9405 -50.5211 25.979  255 255 255
-43.9405 -50.5211 25.9792  255 255 255
-31.8886 -54.3196 31.5605  255 255 255
-42.7838 -51.0951 26.8225  255 255 255
-32.1829 -54.3478 31.5925  255 255 255
6.0492 -66.7469 47.3113  255 255 255
11.0801 -68.7447 49.9291  255 255 255
4.4328 -66.8273 47.4994  255 255 255
-42.9777 -52.4119 28.6793  255 255 255
5.53622 -68.1586 49.2814  255 255 255
7.22699 -68.7453 50.0492  255 255 255
-27.0934 -57.9699 35.7578  255 255 255
-54.4181 -49.9919 25.6272  255 255 255
9.77343 -70.497 51.8345  255 255 255
5.11623 -69.3936 50.4576  255 255 255
-33.6785 -57.2104 34.83  255 255 255
-7.3535 -65.7425 45.5516  255 255 255
-7.5952 -66.349 46.354  255 255 255
-56.3937 -51.1054 27.1129  255 255 255
-44.0102 -55.2021 32.1527  255 255 255
-15.6808 -64.3292 44.4191  255 255 255
4.14559 -71.9894 53.9348  255 255 255
-7.87293 -68.6891 49.53  255 255 255
-6.39233 -69.9842 51.133  255 255 255
-18.3499 -68.9906 49.7203  255 255 255
-43.1335 -62.0462 40.8245  255 255 255
-32.7423 -65.5327 45.1651  255 255 255
-33.084 -65.6496 45.7706  255 255 255
-10.1104 95.7334 -51.8449  255 255 255
-10.1104 95.7334 -51.8448  255 255 255
76.2698 106.979 -97.4645  255 255 255
62.4714 64.8979 -6.51071  255 255 255
48.7431 99.4057 -86.7221  255 255 255
73.3644 101.683 -99.6561  255 255 255
67.1623 58.1247 -1.48204  255 255 255
34.5038 95.6353 -80.1655  255 255 255
67.4756 98.7072 -98.8602  255 255 255
62.3251 59.8093 -11.9494  255 255 255
83.9514 98.8454 -108.716  255 255 255
29.0228 92.5367 -79.7159  255 255 255
58.2422 45.116 19.141  255 255 255
83.7738 96.5416 -109.866  255 255 255
63.4873 56.272 -9.63664  255 255 255
28.4908 90.9977 -81.2443  255 255 255
13.7453 89.0419 -72.2986  255 255 255
59.3735 60.0937 -19.1842  255 255 255
56.7097 44.4361 17.433  255 255 255
40.3275 90.1861 -88.5536  255 255 255
56.3594 44.0831 15.2346  255 255 255
31.7809 87.6039 -84.292  255 255 255
59.7031 57.2483 -21.5371  255 255 255
55.1413 88.9828 -98.4403  255 255 255
-0.624571 83.9459 -67.3054  255 255 255
57.3568 58.454 -24.8495  255 255 255
65.5375 50.4527 -7.78455  255 255 255
86.1519 90.3136 -116.443  255 255 255
63.0669 35.9736 27.3958  255 255 255
80.7653 89.7657 -114.067  255 255 255
75.138 88.2936 -109.422  255 255 255
7.00765 82.4858 -71.1122  255 255 255
-20.7541 80.2084 -56.3733  255 255 255
59.1349 38.7291 19.4104  255 255 255
59.1353 38.7293 19.4101  255 255 255
62.8112 87.2653 -104.932  255 255 255
29.9269 83.309 -86.3329  255 255 255
60.6362 52.9837 -20.6677  255 255 255
0.0450722 79.5704 -70.6417  255 255 255
-15.7544 77.7426 -59.9905  255 255 255
57.3146 38.5344 13.5456  255 255 255
51.0499 82.4868 -98.8729  255 255 255
56.4241 39.5394 10.5414  255 255 255
17.9848 80.348 -81.6689  255 255 255
57.927 38.0026 13.6124  255 255 255
59.7099 36.2485 17.0053  255 255 255
59.7877 81.7691 -104.782  255 255 255
55.3316 80.735 -104.238  255 255 255
50.9097 79.3827 -100.523  255 255 255
52.6473 79.4398 -101.623  255 255 255
58.8891 50.5672 -27.2107  255 255 255
51.6218 79.3387 -101.951  255 255 255
50.9013 79.1187 -101.541  255 255 255
51.8817 78.7775 -101.55  255 255 255
59.5662 33.1835 17.2375  255 255 255
55.7283 36.5735 7.74441  255 255 255
62.2576 30.4223 21.7369  255 255 255
55.8241 76.8149 -104.708  255 255 255
58.9535 31.6267 18.0306  255 255 255
58.9536 31.6268 18.0304  255 255 255
60.9251 30.8798 18.9006  255 255 255
70.715 77.2003 -115.74  255 255 255
59.1882 31.8589 15.1154  255 255 255
33.5315 74.401 -93.2788  255 255 255
-1.78719 72.675 -72.908  255 255 255
56.6545 34.0475 9.06852  255 255 255
61.3119 75.4034 -111.254  255 255 255
60.0555 30.5929 15.5669  255 255 255
60.695 30 16.314  255 255 255
62.2645 28.4697 19.4259  255 255 255
61.7032 28.8182 18.4131  255 255 255
59.993 29.5396 15.1209  255 255 255
59.3956 45.0336 -29.8693  255 255 255
-12.6857 69.6885 -68.667  255 255 255
41.0708 71.8759 -100.966  255 255 255
7.51129 70.4572 -81.8042  255 255 255
66.8736 36.0961 -15.2799  255 255 255
-1.02362 68.0686 -77.6005  255 255 255
60.5394 26.9214 13.4541  255 255 255
56.7615 29.1264 6.3081  255 255 255
55.5182 30.2623 3.092  255 255 255
59.9983 25.8457 12.1608  255 255 255
19.8761 66.0853 -91.6165  255 255 255
60.2581 25.248 11.3086  255 255 255
-0.571312 65.366 -80.6918  255 255 255
57.8454 26.5944 6.78151  255 255 255
57.7585 26.5635 6.86102  255 255 255
60.4591 24.172 12.2176  255 255 255
60.4594 24.1722 12.2173  255 255 255
17.9987 64.2906 -91.5185  255 255 255
59.5816 24.538 9.87041  255 255 255
60.0274 23.6169 10.7152  255 255 255
63.1016 34.5518 -26.2536  255 255 255
82.1388 57.5153 -111.388  255 255 255
63.4074 33.9758 -25.8178  255 255 255
43.2912 63.6138 -110.189  255 255 255
-21.1644 62.1574 -68.7483  255 255 255
-21.1645 62.1573 -68.7482  255 255 255
57.9754 24.0466 6.29512  255 255 255
-4.30896 61.5059 -79.7563  255 255 255
36.121 61.4121 -105.076  255 255 255
-18.5735 60.3845 -72.309  255 255 255
60.9359 33.9326 -33.0325  255 255 255
-17.4124 59.6397 -72.6612  255 255 255
-17.4124 59.6397 -72.6613  255 255 255
55.7724 23.9536 -0.956225  255 255 255
55.6158 23.9911 -2.25547  255 255 255
-18.8151 57.7644 -73.2302  255 255 255
-22.8354 56.7527 -71.5643  255 255 255
-18.1544 54.9835 -69.6934  255 255 255
-8.50735 54.896 -81.6674  255 255 255
-6.45308 54.9395 -84.4595  255 255 255
54.8344 20.3623 -4.60701  255 255 255
-9.56279 54.5966 -82.9366  255 255 255
57.5557 18.3558 0.613232  255 255 255
56.4333 31.1479 -45.2965  255 255 255
62.2072 14.6617 8.94138  255 255 255
59.4572 15.8087 3.58787  255 255 255
60.0354 15.62 3.5425  255 255 255
60.208 14.6703 4.66872  255 255 255
61.1102 14.4098 4.98973  255 255 255
59.1444 26.7829 -42.3657  255 255 255
61.0374 24.4068 -36.9314  255 255 255
59.6769 13.8764 2.93162  255 255 255
55.8106 17.002 -6.38059  255 255 255
59.3227 14.2058 0.506752  255 255 255
59.3609 13.2521 2.92402  255 255 255
58.0736 25.7659 -47.5222  255 255 255
58.0737 25.7659 -47.5226  255 255 255
64.7358 9.1533 11.8143  255 255 255
-3.76451 48.7003 -90.2276  255 255 255
61.0131 11.4917 4.03337  255 255 255
64.4539 19.9616 -32.4822  255 255 255
56.4123 25.9198 -51.0902  255 255 255
57.2174 25.1501 -49.8135  255 255 255
-15.995 47.3294 -82.0526  255 255 255
23.5034 37.8117 -83.5312  255 255 255
-1.08312 45.2937 -93.6603  255 255 255
57.6638 21.5571 -50.7911  255 255 255
22.5597 36.445 -82.6575  255 255 255
60.4889 8.57232 -0.137533  255 255 255
60.9327 8.11335 0.166451  255 255 255
18.318 36.8368 -84.4754  255 255 255
18.318 36.8368 -84.4752  255 255 255
-24.8303 44.5411 -79.5108  255 255 255
-25.5255 44.6332 -79.7837  255 255 255
-25.5927 44.563 -79.4785  255 255 255
57.0689 20.5389 -52.8771  255 255 255
62.3998 6.07197 4.39608  255 255 255
57.4928 20.1202 -51.9357  255 255 255
-27.3099 44.0631 -79.7317  255 255 255
7.31794 33.2202 -80.6518  255 255 255
63.8785 11.9397 -39.4648  255 255 255
56.3271 7.31251 -11.4214  255 255 255
59.8832 3.24995 -4.0693  255 255 255
59.8835 3.25 -4.06978  255 255 255
-23.3482 38.6495 -84.6626  255 255 255
39.1514 19.4055 -62.4889  255 255 255
60.6875 1.80992 -4.90528  255 255 255
59.0331 2.23378 -7.64025  255 255 255
9.52666 23.9027 -68.091  255 255 255
6.37849 24.7982 -69.8183  255 255 255
8.83374 23.6401 -67.8726  255 255 255
7.41095 23.1482 -66.8464  255 255 255
62.7975 -2.22203 -2.21181  255 255 255
67.2379 -5.92284 7.7526  255 255 255
55.8265 1.40726 -18.2499  255 255 255
55.7968 1.39574 -18.2398  255 255 255
-19.4221 28.8191 -74.4904  255 255 255
1.50106 21.9085 -65.8261  255 255 255
-8.37238 6.71174 24.9385  255 255 255
-1.21214 21.3304 -65.6332  255 255 255
62.6611 -4.92462 -4.09164  255 255 255
-0.960575 19.6661 -62.9049  255 255 255
67.9165 -8.94773 6.18833  255 255 255
68.1178 -8.90859 5.9325  255 255 255
3.44479 17.7842 -60.3286  255 255 255
59.7195 -4.03765 -11.8444  255 255 255
57.3208 -3.04352 -17.3555  255 255 255
-12.7714 6.06132 23.0434  255 255 255
61.9644 -6.89587 -7.29339  255 255 255
58.7265 -6.27961 -16.4112  255 255 255
-11.2838 17.627 -59.9419  255 255 255
66.147 -11.1836 0.16989  255 255 255
66.0691 -11.4167 -0.171837  255 255 255
65.7781 -11.3691 0.213478  255 255 255
68.1755 -12.5482 3.69132  255 255 255
68.1755 -12.5482 3.69126  255 255 255
68.9837 -13.9313 5.98002  255 255 255
59.3081 -8.66942 -15.6346  255 255 255
-15.2116 2.44201 26.6255  255 255 255
-16.3307 15.2914 -56.5678  255 255 255
-15.9099 2.12999 26.2409  255 255 255
59.802 -10.6415 -15.3682  255 255 255
59.364 -10.4127 -16.5708  255 255 255
68.5855 -15.9877 2.1834  255 255 255
67.1351 -15.44 -0.954299  255 255 255
67.4635 -16.4911 -0.924135  255 255 255
-18.0848 3.58592 7.356  255 255 255
-18.0847 3.58595 7.35583  255 255 255
67.0531 -16.855 -0.439649  255 255 255
-18.4886 3.39567 7.18433  255 255 255
-18.101 3.29417 6.93049  255 255 255
3.47224 -7.20334 39.2755  255 255 255
-20.1202 10.5173 -50.3448  255 255 255
-22.2508 3.69205 0.914207  255 255 255
65.8744 -18.1539 -5.86005  255 255 255
-8.89518 -4.99363 36.8641  255 255 255
-20.592 0.93129 10.4833  255 255 255
-20.8509 0.626694 10.8708  255 255 255
-1.62095 -8.10867 39.6077  255 255 255
-22.2062 0.719104 10.5554  255 255 255
-25.6742 2.50516 2.57953  255 255 255
68.5481 -21.422 -0.490239  255 255 255
-7.60664 -6.68303 38.0415  255 255 255
67.7897 -21.2315 -3.57577  255 255 255
28.4748 -14.6283 23.5038  255 255 255
-12.6749 -5.37871 34.9877  255 255 255
6.84051 -11.0546 38.381  255 255 255
-4.2205 -8.50723 39.3514  255 255 255
4.27627 -10.8533 39.1589  255 255 255
69.7135 -23.4522 0.501252  255 255 255
4.06455 -11.1254 39.655  255 255 255
-0.328387 -10.0504 39.8643  255 255 255
-12.5627 -7.15682 36.1439  255 255 255
-28.1571 -0.447024 6.41395  255 255 255
-8.26592 -9.36774 38.6853  255 255 255
-22.6723 -3.18418 15.9912  255 255 255
69.4293 -26.0681 -2.7727  255 255 255
-10.4228 -9.04577 37.5781  255 255 255
-10.075 -9.23737 38.1646  255 255 255
-9.44438 -9.49535 38.2862  255 255 255
-23.3331 -3.65283 16.3543  255 255 255
-26.4312 -2.44221 9.24716  255 255 255
-26.677 -2.59767 8.96237  255 255 255
-10.6799 -9.75855 37.7051  255 255 255
-10.6799 -9.75855 37.7051  255 255 255
4.31484 -14.0814 39.5991  255 255 255
4.29167 -14.6919 39.4823  255 255 255
-30.3133 -3.26077 10.0827  255 255 255
-24.4711 -6.844 20.6333  255 255 255
-21.7163 -8.20603 27.6966  255 255 255
-22.2319 -8.12371 26.3583  255 255 255
-22.8909 -7.96452 24.1933  255 255 255
-15.8042 -11.3779 34.9002  255 255 255
-26.3329 -7.79616 21.7935  255 255 255
-21.7768 -10.0906 27.7129  255 255 255
-21.8228 -10.095 27.8684  255 255 255
-15.5667 -12.3385 35.0825  255 255 255
2.89123 -18.023 39.4915  255 255 255
-14.4129 -13.0111 36.0231  255 255 255
12.928 -20.834 38.1398  255 255 255
-30.959 -7.08088 15.2291  255 255 255
-28.9381 -7.974 16.1958  255 255 255
-23.0078 -10.8736 26.0212  255 255 255
-13.2802 -14.3806 37.0712  255 255 255
-20.4137 -11.9938 30.3055  255 255 255
3.2939 -19.4031 39.0647  255 255 255
0.597138 -18.8927 39.7076  255 255 255
-13.423 -14.8021 36.9929  255 255 255
-22.7785 -11.5183 26.7123  255 255 255
-23.2128 -11.9722 27.506  255 255 255
-17.2223 -14.3434 34.4067  255 255 255
-5.29686 -18.2542 39.3262  255 255 255
-27.2792 -11.2947 23.7116  255 255 255
-3.73818 -20.1335 39.2065  255 255 255
-6.74525 -19.7558 39.0407  255 255 255
-16.2845 -16.9169 34.5982  255 255 255
-34.9619 -9.03431 -25.5836  255 255 255
-8.09304 -20.4842 38.5031  255 255 255
-17.992 -17.6551 34.7239  255 255 255
-32.8241 -12.8595 22.6436  255 255 255
3.30564 -24.251 41.4234  255 255 255
13.1016 -27.1852 40.8127  255 255 255
-1.63784 -23.3048 41.5959  255 255 255
-15.423 -19.2274 36.5388  255 255 255
17.5525 -29.2022 39.6812  255 255 255
-21.3184 -17.5176 34.347  255 255 255
-16.0771 -19.3511 36.9302  255 255 255
-11.9665 -21.017 38.9978  255 255 255
-6.73524 -22.7713 40.7691  255 255 255
-33.2339 -14.5573 24.5462  255 255 255
3.01756 -25.9189 40.6551  255 255 255
-10.7017 -21.9211 39.916  255 255 255
17.3501 -30.4584 38.8113  255 255 255
3.50154 -26.3704 40.419  255 255 255
15.3613 -30.0733 38.5795  255 255 255
-17.5399 -20.2814 37.2692  255 255 255
-8.19653 -23.5592 40.788  255 255 255
-29.0591 -17.1448 28.0064  255 255 255
-20.9084 -19.8591 34.3813  255 255 255
-40.2918 -13.765 -20.3227  255 255 255
-11.7392 -23.4623 39.5399  255 255 255
15.5119 -32.3465 36.4754  255 255 255
6.14673 -29.6786 44.4703  255 255 255
5.39038 -30.0333 44.349  255 255 255
5.72674 -30.1699 44.4382  255 255 255
13.634 -32.8966 37.2708  255 255 255
-29.2482 -20.2866 31.0091  255 255 255
-26.2183 -21.8847 34.4411  255 255 255
-22.7602 -23.6302 36.4524  255 255 255
-10.2293 -27.5813 41.0902  255 255 255
-14.7014 -26.6865 39.9312  255 255 255
-2.1958 -30.6622 43.7615  255 255 255
-22.7779 -24.3341 37.4842  255 255 255
0.998155 -32.6888 42.0674  255 255 255
-15.5933 -27.6301 41.6579  255 255 255
0.469712 -33.231 41.6406  255 255 255
12.9742 -37.5416 34.5872  255 255 255
-27.3685 -24.7273 31.9889  255 255 255
-0.331547 -33.365 41.5179  255 255 255
13.7693 -38.2201 33.094  255 255 255
-19.1361 -27.5544 41.5719  255 255 255
-3.17691 -32.9617 41.9796  255 255 255
0.396239 -34.3589 40.6909  255 255 255
4.6338 -36.1343 39.2762  255 255 255
-15.4282 -30.7124 39.5081  255 255 255
-22.2507 -28.7961 34.8425  255 255 255
-14.8507 -31.1238 39.4479  255 255 255
-15.7976 -30.9314 39.0858  255 255 255
-15.7977 -30.9314 39.0862  255 255 255
-12.3435 -33.1819 39.0512  255 255 255
-12.3435 -33.1819 39.0512  255 255 255
-2.82999 -36.4206 39.0513  255 255 255
-16.9235 -31.9771 37.454  255 255 255
-30.568 -29.1204 22.344  255 255 255
-20.1147 -32.5696 34.509  255 255 255
-28.1096 -30.2893 27.9689  255 255 255
-0.29032 -39.366 37.018  255 255 255
-0.802034 -39.4172 37.5419  255 255 255
-28.1408 -30.8009 27.6535  255 255 255
-27.725 -31.1828 26.9181  255 255 255
0.379937 -40.0765 37.0117  255 255 255
-29.966 -30.8621 21.9982  255 255 255
-13.3919 -36.094 36.2647  255 255 255
-14.357 -35.9164 35.6947  255 255 255
-24.2254 -33.2201 29.8768  255 255 255
-24.1912 -33.2252 29.7711  255 255 255
-1.53722 -40.6064 36.4973  255 255 255
-55.866 -25.6449 -5.47756  255 255 255
4.81157 -43.4233 35.5666  255 255 255
-14.7379 -37.0124 34.9483  255 255 255
-20.6511 -35.4317 31.4705  255 255 255
-3.41747 -41.523 35.6582  255 255 255
-11.6505 -38.8357 35.7134  255 255 255
-53.4311 -28.0179 -2.7593  255 255 255
-23.5825 -35.9173 28.8329  255 255 255
-23.6605 -35.8615 29.1522  255 255 255
-13.0666 -39.1497 34.7647  255 255 255
-3.72712 -42.8969 34.5872  255 255 255
5.96457 -47.8353 31.8547  255 255 255
-16.8094 -40.1425 31.4303  255 255 255
-26.1708 -38.0457 23.7405  255 255 255
-9.0862 -44.5585 32.5847  255 255 255
-8.11638 -45.745 32.2689  255 255 255
-4.93212 -46.9915 36.537  255 255 255
-17.2646 -43.8874 28.8646  255 255 255
-30.4067 -40.7739 25.4287  255 255 255
-32.0684 -40.7639 23.9792  255 255 255
-8.82403 -48.185 37.1487  255 255 255
-52.3507 -36.9244 9.01458  255 255 255
-21.3736 -45.4865 32.8987  255 255 255
-57.7732 -35.9015 7.45332  255 255 255
-9.56001 -50.2071 34.6422  255 255 255
-9.05692 -50.5606 34.892  255 255 255
-10.9278 -50.5367 33.0029  255 255 255
-21.4189 -47.6019 31.1883  255 255 255
-8.60816 -51.9243 34.8017  255 255 255
-8.87254 -52.2062 34.319  255 255 255
-20.5781 -48.9089 30.7932  255 255 255
-21.5539 -48.6762 30.2211  255 255 255
-20.8715 -48.894 30.4161  255 255 255
-20.8715 -48.8939 30.4162  255 255 255
14.8806 -61.9994 41.0199  255 255 255
-35.4182 -47.8797 25.0238  255 255 255
9.6619 -62.6418 41.7553  255 255 255
8.3026 -62.423 41.6359  255 255 255
-13.9063 -56.1809 36.2143  255 255 255
-47.622 -46.5838 21.3166  255 255 255
-42.3261 -49.5829 25.2596  255 255 255
7.71925 -66.229 46.2826  255 255 255
-47.6103 -48.8432 24.019  255 255 255
-43.5278 -50.5313 26.0108  255 255 255
13.3631 -69.1554 50.2985  255 255 255
-44.5781 -50.861 26.5031  255 255 255
-3.73278 -64.0979 43.8008  255 255 255
9.42857 -68.4756 49.7181  255 255 255
6.86831 -68.5152 49.8604  255 255 255
0.334325 -66.8028 46.8201  255 255 255
7.52046 -69.2293 50.2489  255 255 255
-11.3919 -63.2136 42.4734  255 255 255
-2.93158 -66.8 47.0587  255 255 255
-1.95658 -67.3359 47.5012  255 255 255
-4.50473 -66.8907 47.541  255 255 255
-4.37424 -67.0226 47.2665  255 255 255
5.11269 -70.1747 51.5672  255 255 255
3.08024 -69.8156 51.0892  255 255 255
-8.90302 -66.0818 46.1797  255 255 255
2.53936 -69.8979 51.19  255 255 255
-8.62478 -66.3995 46.4069  255 255 255
-32.8934 -59.0164 37.0505  255 255 255
-19.0317 -63.4122 42.9521  255 255 255
3.36295 -70.7077 52.2418  255 255 255
-4.70001 -68.1338 48.8123  255 255 255
-42.8688 -56.0032 33.235  255 255 255
-35.005 -58.9468 37.4235  255 255 255
-34.0295 -59.5022 38.0421  255 255 255
-33.4262 -59.8373 38.2482  255 255 255
-1.66293 -70.2787 51.4725  255 255 255
-10.3443 -67.887 48.3364  255 255 255
-22.6682 -63.9921 43.2303  255 255 255
3.63615 -72.7332 54.813  255 255 255
-21.998 -67.5747 47.7006  255 255 255
-18.6889 -68.6318 49.2519  255 255 255
-28.787 -65.7991 45.6227  255 255 255
-40.4744 -65.0033 44.2477  255 255 255
-3.02705 98.4001 -54.7226  255 255 255
77.7608 110.528 -98.7415  255 255 255
75.6242 108.366 -95.9083  255 255 255
-13.7073 95.3851 -50.088  255 255 255
59.4542 68.2969 -12.1674  255 255 255
17.8622 98.1983 -68.3058  255 255 255
63.9247 63.264 -5.21826  255 255 255
82.7122 105.478 -103.037  255 255 255
120.211 110.266 -124.414  255 255 255
120.211 110.266 -124.414  255 255 255
51.3046 100.752 -87.1869  255 255 255
64.5149 61.4314 -4.59386  255 255 255
118.018 108.391 -123.826  255 255 255
39.7266 94.1019 -83.8136  255 255 255
-14.2722 87.1617 -55.247  255 255 255
-3.81613 88.0533 -61.6118  255 255 255
-12.9316 86.1557 -56.5394  255 255 255
101.632 97.8358 -120.192  255 255 255
57.5028 44.6849 18.6081  255 255 255
54.562 92.6883 -94.9821  255 255 255
54.562 92.6884 -94.9821  255 255 255
69.8818 94.1224 -103.728  255 255 255
97.3973 96.8573 -119.384  255 255 255
71.3705 93.7847 -104.581  255 255 255
70.015 93.447 -104.519  255 255 255
61.4804 40.6336 24.2391  255 255 255
63.9116 37.6398 29.993  255 255 255
64.7695 36.5899 30.208  255 255 255
66.4274 50.7879 -5.72952  255 255 255
39.8641 88.5467 -89.5678  255 255 255
60.4277 55.5602 -15.9899  255 255 255
59.6943 39.4875 21.2329  255 255 255
-16.895 81.3585 -57.8028  255 255 255
-1.186 82.612 -67.896  255 255 255
66.503 88.2463 -106.248  255 255 255
2.5062 81.8668 -70.1826  255 255 255
56.4967 40.8427 13.9345  255 255 255
72.6021 87.1814 -110.55  255 255 255
1.34017 79.7165 -65.6922  255 255 255
64.2606 48.6662 -11.8302  255 255 255
64.8317 48.0474 -10.4775  255 255 255
64.832 48.0475 -10.4778  255 255 255
38.0527 83.6727 -92.6452  255 255 255
27.1091 81.7036 -85.6457  255 255 255
27.1096 81.7041 -85.647  255 255 255
64.2465 83.9225 -106.045  255 255 255
71.968 84.5425 -110.56  255 255 255
56.4209 83.9168 -103.384  255 255 255
60.8408 35.8054 19.1764  255 255 255
68.9761 84.0418 -110.052  255 255 255
69.3014 84.2182 -110.601  255 255 255
56.8308 83.1773 -103.464  255 255 255
41.9353 81.748 -95.4376  255 255 255
4.65126 78.3724 -74.172  255 255 255
4.67644 78.3944 -74.2421  255 255 255
-19.9586 76.2908 -59.2567  255 255 255
57.8218 80.6342 -104.106  255 255 255
60.3528 33.3876 18.3655  255 255 255
13.7492 76.8091 -79.8931  255 255 255
32.7835 78.4751 -92.1591  255 255 255
-6.51393 75.6521 -69.129  255 255 255
61.4665 79.6323 -108.329  255 255 255
60.1893 33.3018 17.1851  255 255 255
8.02723 75.0924 -77.5533  255 255 255
21.7675 73.5928 -87.541  255 255 255
18.4436 73.7865 -87.0662  255 255 255
25.8714 73.5051 -89.8039  255 255 255
60.7675 28.6329 16.1962  255 255 255
30.1633 71.0532 -92.4384  255 255 255
30.8211 70.7031 -92.8443  255 255 255
59.2621 43.3358 -30.0984  255 255 255
-3.79647 69.3694 -75.8653  255 255 255
37.905 71.0379 -101.327  255 255 255
22.2207 68.2632 -89.2186  255 255 255
34.0123 68.6145 -101.036  255 255 255
35.6408 67.7558 -101.445  255 255 255
7.0247 66.7958 -83.9071  255 255 255
5.60089 66.0166 -82.3915  255 255 255
59.0453 26.3072 9.58474  255 255 255
66.6621 33.4478 -17.2429  255 255 255
33.6732 66.1797 -102.274  255 255 255
-15.2117 64.2665 -70.2421  255 255 255
57.8771 26.746 6.00203  255 255 255
59.2279 25.5332 8.67093  255 255 255
60.0074 24.9087 10.1369  255 255 255
64.7085 19.8465 19.9195  255 255 255
58.7942 24.323 7.49753  255 255 255
60.7239 20.8915 9.84544  255 255 255
57.6108 23.2562 3.39726  255 255 255
-12.9069 59.2565 -76.3245  255 255 255
-14.7755 58.8256 -75.3058  255 255 255
64.992 27.7921 -23.1302  255 255 255
65.7746 27.4993 -23.3444  255 255 255
-19.2479 57.433 -73.5496  255 255 255
59.7867 31.8469 -37.7017  255 255 255
-9.56299 56.4264 -81.5296  255 255 255
-9.56288 56.4265 -81.5298  255 255 255
60.3311 17.4007 6.71544  255 255 255
56.4485 19.6616 -1.32067  255 255 255
56.3411 32.4032 -47.8309  255 255 255
60.8996 15.7716 5.98158  255 255 255
60.622 15.7118 6.30762  255 255 255
57.3752 17.4285 -0.555213  255 255 255
57.8888 27.4742 -44.7074  255 255 255
64.8461 20.6805 -32.0069  255 255 255
63.3199 10.0063 8.41539  255 255 255
-15.6728 48.0343 -80.4385  255 255 255
63.9652 8.91524 9.2115  255 255 255
56.8861 25.1513 -50.3232  255 255 255
56.7128 24.6745 -50.901  255 255 255
57.5805 12.2751 -4.61017  255 255 255
62.6328 8.78199 5.51144  255 255 255
57.844 11.5563 -4.27808  255 255 255
65.3955 5.88163 11.66  255 255 255
58.9165 9.6478 -3.08803  255 255 255
-6.05467 43.8025 -92.6036  255 255 255
-25.0794 44.2787 -80.7029  255 255 255
11.6481 37.2397 -84.1598  255 255 255
22.859 32.777 -79.8602  255 255 255
-3.4005 40.3957 -88.8202  255 255 255
7.37496 35.1338 -82.8134  255 255 255
18.105 28.1459 -74.3505  255 255 255
64.4167 0.922933 4.84666  255 255 255
8.64588 29.1099 -73.2628  255 255 255
18.7339 26.5039 -71.7964  255 255 255
67.6912 -2.06524 11.3981  255 255 255
16.9483 26.0345 -69.8884  255 255 255
15.7147 26.5309 -71.6228  255 255 255
63.0175 0.484721 0.914514  255 255 255
2.57985 29.5894 -76.0359  255 255 255
66.0457 -3.03888 6.15381  255 255 255
57.1946 2.68839 -13.0346  255 255 255
2.34311 26.6976 -72.1171  255 255 255
56.2273 3.18296 -15.3466  255 255 255
63.9621 -2.10347 1.46059  255 255 255
7.25251 4.14998 26.6398  255 255 255
7.53859 4.02834 26.8826  255 255 255
60.4316 -1.81653 -6.72754  255 255 255
8.14865 1.31853 31.5001  255 255 255
-1.52728 20.7501 -64.5929  255 255 255
60.1476 -3.78612 -9.36542  255 255 255
68.9613 -9.74339 8.70873  255 255 255
68.1485 -9.22682 6.91074  255 255 255
11.2824 -0.933476 31.4327  255 255 255
59.5912 -5.5631 -14.842  255 255 255
-14.0094 20.1274 -63.4447  255 255 255
-12.9254 4.53893 26.4349  255 255 255
65.4022 -11.1832 -2.33191  255 255 255
2.41556 -2.23337 35.6999  255 255 255
57.6117 -6.88573 -19.801  255 255 255
3.16066 -3.23155 36.7888  255 255 255
66.9393 -13.157 -0.122673  255 255 255
29.5052 -6.46952 13.3378  255 255 255
65.8882 -13.357 -2.61806  255 255 255
11.1771 -6.37141 35.2494  255 255 255
67.4381 -15.3534 0.456365  255 255 255
-16.3466 1.02571 27.0895  255 255 255
-13.4226 11.7192 -52.2985  255 255 255
68.1962 -16.5616 2.11447  255 255 255
4.70887 -6.00042 37.6341  255 255 255
68.9321 -17.3643 2.7267  255 255 255
-15.024 -1.58316 30.9715  255 255 255
